-16.9434  64.9320  1.54
-16.9486  65.0038  1.36
-16.9500  65.0217  1.26
-16.9513  65.0396  2.17
-16.9024  64.9505  1.55
-16.9050  64.9864  2.32
-16.9063  65.0043  1.37
-16.9075  65.0222  1.76
-16.9088  65.0402  1.68
-16.9101  65.0581  2.45
-16.9114  65.0761  2.28
-16.9153  65.1299  2.29
-16.8601  64.9510  1.30
-16.8614  64.9690  1.45
-16.8626  64.9869  2.32
-16.8639  65.0048  1.61
-16.8651  65.0228  2.37
-16.8664  65.0407  3.50
-16.8676  65.0587  2.87
-16.8689  65.0766  1.98
-16.8701  65.0945  2.01
-16.8714  65.1125  2.91
-16.8727  65.1304  1.94
-16.8166  64.9336  2.02
-16.8178  64.9516  1.27
-16.8190  64.9695  1.55
-16.8202  64.9874  1.18
-16.8215  65.0054  1.11
-16.8227  65.0233  4.07
-16.8239  65.0412  3.71
-16.8251  65.0592  2.90
-16.8264  65.0771  3.33
-16.8276  65.0951  2.48
-16.8288  65.1130  2.01
-16.8301  65.1309  2.31
-16.8313  65.1489  1.91
-16.7731  64.9162  2.23
-16.7743  64.9341  2.23
-16.7755  64.9521  2.33
-16.7767  64.9700  1.40
-16.7779  64.9879  1.85
-16.7791  65.0059  1.01
-16.7803  65.0238  2.84
-16.7814  65.0418  4.56
-16.7826  65.0597  3.31
-16.7838  65.0776  3.16
-16.7850  65.0956  2.92
-16.7863  65.1135  2.01
-16.7875  65.1314  1.99
-16.7887  65.1494  2.05
-16.7320  64.9346  3.06
-16.7332  64.9526  2.20
-16.7343  64.9705  2.20
-16.7355  64.9884  1.87
-16.7367  65.0064  1.10
-16.7378  65.0243  2.31
-16.7390  65.0423  3.82
-16.7402  65.0602  1.89
-16.7413  65.0781  1.75
-16.7425  65.0961  1.76
-16.7437  65.1140  1.56
-16.7449  65.1319  1.70
-16.7460  65.1499  2.12
-16.6897  64.9351  3.25
-16.6909  64.9531  3.41
-16.6920  64.9710  3.32
-16.6931  64.9889  3.06
-16.6943  65.0069  1.78
-16.6954  65.0248  3.37
-16.6965  65.0427  3.50
-16.6977  65.0607  1.90
-16.6988  65.0786  1.63
-16.7000  65.0966  1.76
-16.7011  65.1145  2.13
-16.7023  65.1324  1.92
-16.7034  65.1504  1.83
-16.6474  64.9356  2.77
-16.6485  64.9535  2.74
-16.6496  64.9715  2.97
-16.6507  64.9894  3.46
-16.6518  65.0073  3.85
-16.6530  65.0253  3.20
-16.6541  65.0432  3.09
-16.6552  65.0612  1.96
-16.6563  65.0791  2.08
-16.6574  65.0970  2.36
-16.6585  65.1150  2.39
-16.6596  65.1329  2.61
-16.6608  65.1508  2.49
-16.6073  64.9719  2.90
-16.6084  64.9899  2.19
-16.6094  65.0078  3.26
-16.6105  65.0257  2.99
-16.6116  65.0437  3.94
-16.6127  65.0616  2.46
-16.6138  65.0796  2.29
-16.6149  65.0975  2.51
-16.6160  65.1154  2.29
-16.6170  65.1334  2.58
-16.6181  65.1513  1.99
-16.5660  64.9903  3.85
-16.5670  65.0083  3.55
-16.5681  65.0262  3.89
-16.5691  65.0441  3.07
-16.5702  65.0621  2.39
-16.5713  65.0800  2.39
-16.5723  65.0979  2.47
-16.5734  65.1159  2.51
-16.5744  65.1338  2.21
-16.5755  65.1518  1.31
-16.5766  65.1697  1.07
-16.5236  64.9908  3.61
-16.5246  65.0087  3.25
-16.5256  65.0266  2.98
-16.5267  65.0446  3.14
-16.5277  65.0625  3.17
-16.5287  65.0805  2.96
-16.5298  65.0984  2.24
-16.5308  65.1163  2.19
-16.5318  65.1343  1.67
-16.5329  65.1522  1.63
-16.5339  65.1701  1.57
-16.4832  65.0271  2.53
-16.4842  65.0450  3.64
-16.4852  65.0629  4.25
-16.4862  65.0809  2.79
-16.4872  65.0988  2.89
-16.4882  65.1168  1.93
-16.4892  65.1347  1.72
-16.4902  65.1526  1.46
-16.4912  65.1706  1.55
-16.4922  65.1885  1.53
